# .PCD v.7 - Point Cloud Data file format
VERSION .7
FIELDS x y z rgb
SIZE 4 4 4 4
TYPE F F F F
COUNT 1 1 1 1
WIDTH 1006
HEIGHT 1
VIEWPOINT 0 0 0 1 0 0 0
POINTS 1006
DATA ascii
-0.004395 0.034077 0.168043 3.765615476183e-39
-0.004524 0.032790 0.168075 6.450094154678e-39
-0.004591 0.032148 0.168091 9.774215135392e-39
-0.004719 0.030861 0.168123 7.566200355543e-39
-0.004847 0.029575 0.168155 7.658035851701e-39
-0.004976 0.028289 0.168187 7.657319788186e-39
-0.005104 0.027002 0.168218 7.749511214154e-39
-0.005232 0.025716 0.168250 8.211208229583e-39
-0.005361 0.024430 0.168282 6.733180266545e-39
-0.005489 0.023144 0.168314 0.000000000000e+00
-0.005618 0.021857 0.168346 7.008349042089e-39
-0.005684 0.021215 0.168362 9.315040457199e-39
-0.005813 0.019929 0.168393 7.841711047913e-39
-0.005941 0.018643 0.168425 7.932824875361e-39
-0.006070 0.017357 0.168457 7.288897402438e-39
-0.007572 0.016357 0.168474 7.197417836090e-39
-0.007701 0.015074 0.168506 7.658395985406e-39
-0.007829 0.013790 0.168538 6.270055327981e-39
-0.007957 0.012507 0.168569 3.587324068672e-43
-0.008024 0.011866 0.168585 9.183549615799e-41
-0.009623 0.010902 0.168601 2.939456144466e-39
-0.009751 0.009622 0.168633 3.857449571042e-39
-0.009879 0.008341 0.168664 4.040763232250e-39
-0.008536 0.006732 0.168712 4.132956059516e-39
-0.008664 0.005449 0.168744 4.040761830952e-39
-0.008792 0.004166 0.168776 3.030571373214e-39
-0.008920 0.002882 0.168808 2.388123671469e-39
-0.009048 0.001599 0.168839 9.680940505711e-39
-0.009115 0.000958 0.168855 8.390926158931e-39
-0.009243 -0.000325 0.168887 7.564047961102e-39
-0.008000 -0.001931 0.168934 7.748790946743e-39
-0.009499 -0.002892 0.168950 7.564399687017e-39
-0.023631 -0.072962 0.170646 3.306799530397e-39
-0.023757 -0.074231 0.170677 4.591774807900e-39
-0.023884 -0.075500 0.170709 4.132598728408e-39
-0.024011 -0.076769 0.170740 4.040761830952e-39
-0.024137 -0.078038 0.170772 4.132600129707e-39
-0.024264 -0.079307 0.170803 4.132597327110e-39
0.000258 0.066685 0.166596 5.340894953943e-39
0.000129 0.065396 0.166628 9.959325261231e-39
-0.008274 -0.004517 0.168352 7.288911415423e-39
-0.009772 -0.005472 0.168369 8.484929463813e-39
-0.009900 -0.006755 0.168401 9.183829875492e-41
-0.010028 -0.008039 0.168432 3.615350037958e-43
-0.010156 -0.009322 0.168464 2.755064884740e-39
-0.010223 -0.009962 0.168480 3.673781381323e-39
-0.011818 -0.010879 0.168496 4.132958862113e-39
-0.011946 -0.012159 0.168528 4.040763232250e-39
-0.012073 -0.013439 0.168559 4.224432823268e-39
-0.012201 -0.014720 0.168591 4.132958862113e-39
-0.012329 -0.016000 0.168623 4.132956059516e-39
-0.012457 -0.017280 0.168654 3.857449571042e-39
-0.012584 -0.018560 0.168686 1.010190457738e-39
-0.012651 -0.019199 0.168702 5.158283343266e-39
-0.012779 -0.020480 0.168734 9.496553449880e-39
-0.012907 -0.021760 0.168765 7.749875551755e-39
-0.013034 -0.023040 0.168797 7.380381172681e-39
-0.013162 -0.024320 0.168829 8.207253765316e-39
-0.014656 -0.025228 0.168845 7.931029812029e-39
-0.014783 -0.026505 0.168877 7.656963858376e-39
-0.014911 -0.027783 0.168908 9.129212866546e-39
-0.015038 -0.029060 0.168940 5.605193857299e-45
-0.013801 -0.030720 0.168987 0.000000000000e+00
-0.015232 -0.030976 0.168987 9.183549615799e-41
-0.015360 -0.032253 0.169019 2.847260514603e-39
-0.015487 -0.033530 0.169050 4.132956059516e-39
-0.015615 -0.034808 0.169082 4.224432823268e-39
-0.015742 -0.036085 0.169114 4.132597327110e-39
-0.015870 -0.037362 0.169145 4.040763232250e-39
-0.015997 -0.038639 0.169177 4.224791555674e-39
-0.016125 -0.039917 0.169208 4.132598728408e-39
-0.016191 -0.040554 0.169224 3.949643799607e-39
-0.016319 -0.041832 0.169256 4.132598728408e-39
-0.017808 -0.042701 0.169271 3.858167035856e-39
-0.016574 -0.044386 0.169319 2.112230424618e-39
-0.016701 -0.045663 0.169351 1.032021146384e-38
-0.018190 -0.046525 0.169366 8.670741640183e-39
-0.018317 -0.047799 0.169397 7.933199022051e-39
-0.018444 -0.049074 0.169429 7.841711047913e-39
-0.018511 -0.049710 0.169445 7.933553550563e-39
-0.018638 -0.050984 0.169476 7.932824875361e-39
-0.018765 -0.052259 0.169508 9.316116654420e-39
-0.018892 -0.053533 0.169539 2.489649146507e-39
-0.019020 -0.054808 0.169571 3.587324068672e-43
-0.019147 -0.056082 0.169602 1.653759198255e-39
-0.019274 -0.057356 0.169634 3.489748854004e-39
-0.019401 -0.058631 0.169665 3.765972807291e-39
-0.019528 -0.059905 0.169697 4.683620113147e-39
-0.019656 -0.061179 0.169728 1.836709923160e-39
-0.019722 -0.061816 0.169744 6.265712704040e-39
-0.019849 -0.063090 0.169776 8.667878787420e-39
-0.019976 -0.064364 0.169807 7.474362056788e-39
-0.020103 -0.065638 0.169839 8.024307244306e-39
-0.020231 -0.066913 0.169870 8.576755150882e-39
-0.020358 -0.068187 0.169902 8.576399221072e-39
-0.020485 -0.069461 0.169933 9.404353616121e-39
-0.021969 -0.070270 0.169947 2.395678071490e-39
-0.023392 -0.070439 0.169945 7.006492321624e-45
-0.023518 -0.071708 0.169976 1.102384686303e-39
-0.023645 -0.072977 0.170008 3.306799530397e-39
-0.023771 -0.074246 0.170039 4.591776209198e-39
-0.023898 -0.075515 0.170071 4.499943515637e-39
-0.024025 -0.076784 0.170102 4.040761830952e-39
-0.024151 -0.078053 0.170133 4.683614507953e-39
-0.024278 -0.079322 0.170165 4.132597327110e-39
0.000045 0.064737 0.165996 7.842422907532e-39
-0.000083 0.063447 0.166028 7.749881156948e-39
-0.000212 0.062158 0.166060 8.118658071208e-39
-0.000341 0.060868 0.166092 7.842076786812e-39
-0.000469 0.059579 0.166123 7.474004725680e-39
-0.000598 0.058290 0.166155 9.040262643927e-39
-0.000727 0.057000 0.166187 5.349552175856e-39
-0.000855 0.055711 0.166219 5.510129769479e-40
-0.000984 0.054422 0.166251 3.857099246426e-39
-0.001051 0.053777 0.166267 4.408106618181e-39
-0.001180 0.052488 0.166299 4.132956059516e-39
-0.001309 0.051199 0.166331 4.132597327110e-39
-0.001437 0.049910 0.166363 4.316985784239e-39
-0.002947 0.048842 0.166384 4.409194025789e-39
-0.003075 0.047555 0.166416 1.102025953896e-39
-0.003204 0.046268 0.166448 1.069508122382e-38
-0.001952 0.044753 0.166490 7.840634850692e-39
-0.002081 0.043464 0.166522 8.116148345658e-39
-0.003528 0.043053 0.166528 8.482422540860e-39
-0.003656 0.041766 0.166559 8.575685960154e-39
-0.003784 0.040479 0.166591 7.841722258300e-39
-0.003913 0.039193 0.166623 9.684530632377e-39
-0.004041 0.037907 0.166655 7.006492321624e-45
-0.004170 0.036620 0.166687 2.755064884740e-40
-0.004298 0.035334 0.166719 3.306077861688e-39
-0.004426 0.034047 0.166750 3.397913357846e-39
-0.004493 0.033405 0.166766 2.204051907792e-39
-0.004622 0.032118 0.166798 9.866413567852e-39
-0.004750 0.030832 0.166830 7.473644591975e-39
-0.004878 0.029546 0.166862 7.656963858376e-39
-0.005007 0.028259 0.166894 7.656963858376e-39
-0.005135 0.026973 0.166926 7.657316985589e-39
-0.005263 0.025687 0.166957 8.302689197229e-39
-0.006768 0.024671 0.166978 6.824654227699e-39
-0.006896 0.023387 0.167009 9.183549615799e-41
-0.006963 0.022746 0.167025 2.802596928650e-45
-0.005716 0.021186 0.167069 9.038810898717e-39
-0.007219 0.020179 0.167089 8.023225441892e-39
-0.007347 0.018895 0.167121 8.023225441892e-39
-0.007475 0.017612 0.167152 7.840634850692e-39
-0.007603 0.016328 0.167184 7.658035851701e-39
-0.007732 0.015045 0.167216 8.210489363470e-39
-0.007860 0.013761 0.167248 7.007257430586e-39
-0.007988 0.012478 0.167279 9.255296097173e-41
-0.008055 0.011837 0.167295 3.587324068672e-43
-0.009654 0.010873 0.167314 2.847260514603e-39
-0.009782 0.009592 0.167346 4.224432823268e-39
-0.009910 0.008312 0.167377 4.316269720724e-39
-0.008567 0.006703 0.167422 4.040763232250e-39
-0.008695 0.005420 0.167454 4.040763232250e-39
-0.008823 0.004136 0.167486 3.306436594095e-39
-0.008951 0.002853 0.167518 2.663998701439e-39
-0.009079 0.001570 0.167549 9.221768630115e-39
-0.009146 0.000929 0.167565 7.563692031292e-39
-0.009274 -0.000354 0.167597 7.749515418049e-39
-0.009402 -0.001638 0.167629 7.657316985589e-39
-0.009530 -0.002921 0.167660 7.749159488239e-39
-0.009658 -0.004204 0.167692 7.841722258300e-39
-0.009786 -0.005487 0.167724 8.484929463813e-39
-0.009914 -0.006770 0.167756 2.755064884740e-40
-0.010042 -0.008053 0.167788 2.802596928650e-45
-0.011576 -0.008333 0.167789 1.928904151725e-39
-0.011704 -0.009613 0.167821 3.581943082569e-39
-0.011832 -0.010894 0.167853 4.316268319426e-39
-0.011960 -0.012174 0.167884 4.132598728408e-39
0.000355 0.067945 0.165268 4.591790222183e-39
0.000227 0.066656 0.165300 2.020380915476e-39
0.000098 0.065366 0.165332 9.959319656037e-39
0.000031 0.064722 0.165348 8.303768197047e-39
-0.000098 0.063433 0.165380 7.934988480190e-39
-0.000226 0.062143 0.165412 8.119014001018e-39
-0.000355 0.060854 0.165444 7.934272416675e-39
-0.000484 0.059564 0.165476 7.934632550380e-39
-0.000612 0.058275 0.165508 7.934633951679e-39
-0.000741 0.056985 0.165539 8.116502874170e-39
-0.012104 -0.013469 0.167272 4.316268319426e-39
-0.012232 -0.014749 0.167304 4.040763232250e-39
-0.012360 -0.016029 0.167336 4.040761830952e-39
-0.012488 -0.017309 0.167367 3.489748854004e-39
-0.012615 -0.018589 0.167399 2.295940653291e-39
-0.012682 -0.019229 0.167415 9.492236049311e-39
-0.012810 -0.020509 0.167447 7.841706844017e-39
-0.012937 -0.021789 0.167478 7.840278920882e-39
-0.013065 -0.023069 0.167510 7.839560054770e-39
-0.013193 -0.024349 0.167542 7.931385741839e-39
-0.014687 -0.025257 0.167561 7.749512615452e-39
-0.014814 -0.026535 0.167592 8.117216135088e-39
-0.014942 -0.027812 0.167624 7.470040452324e-39
-0.015069 -0.029090 0.167655 7.006492321624e-45
-0.015136 -0.029728 0.167671 2.802596928650e-45
-0.015263 -0.031005 0.167703 1.562283835802e-39
-0.015391 -0.032282 0.167734 3.581585751460e-39
-0.015518 -0.033560 0.167766 4.408103815584e-39
-0.015646 -0.034837 0.167798 4.224435625865e-39
-0.015773 -0.036114 0.167829 4.132597327110e-39
-0.015901 -0.037391 0.167861 4.040761830952e-39
-0.016028 -0.038669 0.167893 3.857449571042e-39
-0.016155 -0.039946 0.167924 4.040763232250e-39
-0.016222 -0.040584 0.167940 3.857092239934e-39
-0.016349 -0.041861 0.167972 4.132600129707e-39
-0.017839 -0.042730 0.167989 3.858167035856e-39
-0.016604 -0.044415 0.168035 1.836718330951e-39
-0.016732 -0.045692 0.168066 1.013796979596e-38
-0.016859 -0.046970 0.168098 7.749864341367e-39
-0.018348 -0.047828 0.168116 8.207971230130e-39
-0.017114 -0.049524 0.168161 7.749512615452e-39
-0.018542 -0.049739 0.168163 7.657679921891e-39
-0.018669 -0.051014 0.168195 7.749512615452e-39
-0.018796 -0.052288 0.168226 9.500505111549e-39
-0.018923 -0.053563 0.168258 1.198554398611e-39
-0.019050 -0.054837 0.168289 3.587324068672e-43
-0.019178 -0.056111 0.168321 2.205130907609e-39
-0.019305 -0.057386 0.168352 4.040763232250e-39
-0.019432 -0.058660 0.168384 3.857449571042e-39
-0.019559 -0.059934 0.168415 4.316276727216e-39
-0.019686 -0.061209 0.168447 2.755064884740e-39
-0.019753 -0.061845 0.168463 7.277340894003e-39
-0.019880 -0.063119 0.168494 8.300538204086e-39
-0.020007 -0.064394 0.168526 7.842425710129e-39
-0.020134 -0.065668 0.168557 7.565484292028e-39
-0.020261 -0.066942 0.168589 7.933179403873e-39
-0.020389 -0.068216 0.168620 8.207616701619e-39
-0.021873 -0.069028 0.168637 9.589100805658e-39
-0.022000 -0.070300 0.168668 2.027252883145e-39
-0.022066 -0.070935 0.168684 7.006492321624e-45
-0.023549 -0.071738 0.168700 1.285696946212e-39
-0.023676 -0.073007 0.168732 3.306077861688e-39
-0.023802 -0.074276 0.168763 4.132597327110e-39
-0.023929 -0.075544 0.168795 4.132598728408e-39
-0.024055 -0.076813 0.168826 4.040763232250e-39
-0.024182 -0.078082 0.168857 4.499943515637e-39
-0.024309 -0.079351 0.168889 4.499939311742e-39
-0.000887 0.055682 0.164924 1.836822027037e-40
-0.001015 0.054392 0.164955 1.377532442370e-39
-0.001082 0.053748 0.164971 3.858529972158e-39
-0.001211 0.052459 0.165003 4.959475524938e-39
-0.001340 0.051170 0.165035 4.683611705356e-39
-0.001468 0.049880 0.165067 3.489748854004e-39
-0.002978 0.048812 0.165091 4.041134576343e-39
-0.003106 0.047526 0.165123 1.285696946212e-39
-0.001854 0.046013 0.165163 9.775647262423e-39
-0.001983 0.044724 0.165195 7.749159488239e-39
-0.002112 0.043434 0.165227 7.750231481564e-39
-0.003559 0.043023 0.165235 7.749523825840e-39
-0.003687 0.041737 0.165267 7.657679921891e-39
-0.003815 0.040450 0.165298 7.658035851701e-39
-0.003944 0.039164 0.165330 9.039161223334e-39
-0.004072 0.037877 0.165362 7.006492321624e-45
-0.004201 0.036591 0.165394 2.755064884740e-40
-0.004329 0.035304 0.165426 2.663229388582e-39
-0.004457 0.034018 0.165458 3.306796727800e-39
-0.004524 0.033375 0.165474 2.295887403950e-39
-0.004653 0.032089 0.165505 9.957527395301e-39
-0.004781 0.030803 0.165537 7.658034450403e-39
-0.004909 0.029516 0.165569 7.842811067207e-39
-0.005038 0.028230 0.165601 7.749526628437e-39
-0.005166 0.026944 0.165633 8.025020505225e-39
-0.005295 0.025658 0.165665 8.669320723540e-39
-0.006799 0.024642 0.165687 7.099804786363e-39
-0.006927 0.023358 0.165719 9.183549615799e-41
-0.006994 0.022717 0.165735 2.802596928650e-45
-0.007122 0.021433 0.165767 9.499081392310e-39
-0.007250 0.020149 0.165799 7.473291464762e-39
-0.007378 0.018866 0.165830 7.839910379386e-39
-0.007506 0.017582 0.165862 7.747714749523e-39
-0.007634 0.016299 0.165894 7.565119954427e-39
-0.007763 0.015015 0.165926 7.842427111428e-39
-0.007891 0.013732 0.165958 6.271131525202e-39
-0.008019 0.012448 0.165989 9.183549615799e-41
-0.008086 0.011807 0.166005 1.840297247228e-40
-0.008214 0.010524 0.166037 2.847260514603e-39
-0.009813 0.009563 0.166058 3.857449571042e-39
-0.009941 0.008282 0.166090 4.040763232250e-39
-0.008598 0.006674 0.166132 4.040763232250e-39
-0.008726 0.005390 0.166164 4.132597327110e-39
-0.008854 0.004107 0.166196 3.581584350162e-39
-0.008982 0.002824 0.166228 2.755104121097e-39
-0.009110 0.001540 0.166259 9.589826678262e-39
-0.009177 0.000899 0.166275 7.839560054770e-39
-0.009305 -0.000384 0.166307 7.380376968786e-39
-0.009433 -0.001667 0.166339 7.655519119659e-39
-0.009561 -0.002950 0.166371 7.840267710494e-39
-0.009689 -0.004233 0.166402 7.564394081823e-39
-0.009817 -0.005517 0.166434 9.129927528763e-39
-0.009945 -0.006800 0.166466 3.587324068672e-43
-0.011541 -0.007723 0.166486 5.605193857299e-45
-0.011607 -0.008362 0.166502 1.654115128064e-39
-0.011735 -0.009643 0.166534 3.581585751460e-39
-0.011863 -0.010923 0.166565 4.040761830952e-39
-0.011991 -0.012203 0.166597 3.765255342478e-39
-0.012119 -0.013484 0.166629 4.040761830952e-39
-0.012246 -0.014764 0.166661 3.765614074885e-39
-0.012374 -0.016044 0.166692 4.132956059516e-39
-0.012502 -0.017324 0.166724 3.214242365530e-39
-0.012630 -0.018604 0.166756 3.492000740636e-39
-0.012696 -0.019244 0.166771 1.013654607672e-38
-0.012824 -0.020524 0.166803 7.382888095634e-39
0.000324 0.067916 0.163972 4.867292506761e-39
0.000196 0.066627 0.164004 1.928545419318e-39
0.000067 0.065337 0.164036 1.087839768762e-38
-0.000000 0.064693 0.164052 9.405443826326e-39
-0.000129 0.063403 0.164084 7.384697171951e-39
-0.000257 0.062114 0.164116 8.855138505103e-39
-0.000386 0.060824 0.164148 8.118297937503e-39
-0.000515 0.059535 0.164180 7.934636754276e-39
-0.000644 0.058246 0.164212 7.750597220464e-39
-0.000772 0.056956 0.164244 9.223566496045e-39
-0.000901 0.055667 0.164276 3.780424398354e-39
-0.001030 0.054378 0.164308 1.010204470723e-39
-0.001097 0.053733 0.164324 2.114017080160e-39
-0.001225 0.052444 0.164356 3.308235861323e-39
-0.001354 0.051155 0.164387 2.481352058300e-39
-0.002864 0.050084 0.164413 1.836751962114e-39
-0.002992 0.048798 0.164445 8.384426936653e-39
-0.003121 0.047511 0.164477 3.673419846320e-40
-0.012968 -0.021818 0.166191 8.024304441709e-39
-0.013096 -0.023098 0.166223 8.574967094041e-39
-0.013224 -0.024379 0.166255 8.207616701619e-39
-0.014718 -0.025287 0.166276 8.024307244306e-39
-0.014845 -0.026564 0.166308 8.672186378899e-39
-0.014973 -0.027841 0.166339 3.136096154070e-39
-0.015100 -0.029119 0.166371 3.587324068672e-43
-0.015166 -0.029757 0.166387 2.802596928650e-45
-0.015294 -0.031034 0.166419 1.837427387974e-39
-0.015421 -0.032312 0.166450 3.857092239934e-39
-0.015549 -0.033589 0.166482 4.132956059516e-39
-0.015676 -0.034866 0.166513 4.408103815584e-39
-0.015804 -0.036144 0.166545 4.500298044148e-39
-0.015931 -0.037421 0.166577 4.040763232250e-39
-0.016059 -0.038698 0.166608 4.040761830952e-39
-0.017488 -0.038936 0.166613 4.224435625865e-39
-0.016253 -0.040613 0.166656 4.132597327110e-39
-0.017743 -0.041485 0.166676 4.040764633549e-39
-0.017870 -0.042759 0.166708 3.765614074885e-39
-0.017997 -0.044034 0.166739 2.480284268870e-39
-0.016763 -0.045722 0.166782 9.955372198263e-39
-0.016890 -0.046999 0.166814 7.473640388079e-39
-0.017018 -0.048276 0.166845 8.022865308187e-39
-0.017145 -0.049553 0.166877 7.931029812029e-39
-0.018572 -0.049769 0.166881 8.207622306812e-39
-0.017339 -0.051468 0.166924 7.656240788368e-39
-0.018827 -0.052317 0.166945 9.867492567670e-39
-0.018954 -0.053592 0.166976 8.287040897278e-40
-0.019081 -0.054866 0.167008 3.643376007245e-43
-0.019208 -0.056141 0.167039 3.123484467891e-39
-0.019336 -0.057415 0.167071 4.775804532622e-39
-0.019463 -0.058689 0.167102 4.408103815584e-39
-0.019590 -0.059964 0.167134 3.857456577535e-39
-0.019656 -0.060600 0.167150 3.214242365530e-39
-0.019783 -0.061874 0.167181 8.106381295362e-39
-0.019911 -0.063149 0.167213 8.576039087367e-39
-0.020038 -0.064423 0.167244 7.842071181618e-39
-0.020165 -0.065697 0.167276 7.749163692135e-39
-0.020292 -0.066971 0.167307 7.749511214154e-39
-0.020419 -0.068245 0.167339 8.392007961345e-39
-0.020546 -0.069520 0.167370 9.590186811968e-39
-0.022030 -0.070329 0.167390 1.014537285574e-39
-0.022096 -0.070964 0.167405 7.006492321624e-45
-0.023580 -0.071767 0.167424 1.469367938528e-39
-0.023706 -0.073036 0.167456 3.673419846320e-39
-0.023833 -0.074305 0.167487 4.132597327110e-39
-0.023959 -0.075574 0.167518 4.224437027163e-39
-0.024086 -0.076843 0.167550 4.132597327110e-39
-0.024213 -0.078111 0.167581 4.775451405409e-39
-0.024339 -0.079380 0.167613 4.408462547990e-39
-0.024405 -0.080014 0.167628 4.316279529813e-39
-0.003266 0.046210 0.163862 9.682016702932e-39
-0.003394 0.044923 0.163894 7.749875551755e-39
-0.003461 0.044281 0.163910 7.749512615452e-39
-0.003590 0.042994 0.163942 8.023951314496e-39
-0.003718 0.041708 0.163974 8.024307244306e-39
-0.003846 0.040421 0.164005 7.472575401246e-39
-0.003975 0.039135 0.164037 9.407590615574e-39
-0.004103 0.037848 0.164069 7.006492321624e-45
-0.004232 0.036562 0.164101 9.183549615799e-41
-0.004360 0.035275 0.164133 2.846900380898e-39
-0.004488 0.033989 0.164165 3.673426852812e-39
-0.004555 0.033346 0.164181 1.928545419318e-39
-0.004684 0.032060 0.164213 9.592697938816e-39
-0.004812 0.030773 0.164244 7.475086528094e-39
-0.004940 0.029487 0.164276 7.381447560813e-39
-0.005069 0.028201 0.164308 7.658035851701e-39
-0.006574 0.027180 0.164334 7.932463340358e-39
-0.005326 0.025628 0.164372 8.485282591026e-39
-0.006830 0.024612 0.164397 6.454079447510e-39
-0.006897 0.023971 0.164413 9.184110135185e-41
-0.007025 0.022687 0.164445 2.802596928650e-45
-0.007153 0.021404 0.164477 9.130303076752e-39
-0.007281 0.020120 0.164508 7.657315584290e-39
-0.007409 0.018837 0.164540 7.655524724853e-39
-0.007537 0.017553 0.164572 7.655524724853e-39
-0.007665 0.016270 0.164604 7.379651096181e-39
-0.007794 0.014986 0.164636 8.207616701619e-39
-0.007922 0.013703 0.164667 6.914337329416e-39
-0.008050 0.012419 0.164699 3.587324068672e-43
-0.008116 0.011778 0.164715 0.000000000000e+00
-0.009716 0.010815 0.164739 3.490471924011e-39
-0.009844 0.009534 0.164771 4.592492272713e-39
-0.009971 0.008253 0.164803 3.857449571042e-39
-0.008629 0.006644 0.164842 4.040761830952e-39
-0.008757 0.005361 0.164874 4.040763232250e-39
-0.008885 0.004078 0.164906 3.674137311133e-39
-0.009013 0.002794 0.164938 1.836719732249e-39
-0.009141 0.001511 0.164969 9.500855436165e-39
-0.009208 0.000870 0.164985 7.933550747966e-39
-0.009336 -0.000413 0.165017 7.933554951861e-39
-0.009464 -0.001696 0.165049 7.933176601276e-39
-0.009592 -0.002980 0.165081 8.207968427533e-39
-0.009720 -0.004263 0.165112 7.838834182165e-39
-0.009848 -0.005546 0.165144 9.498344309317e-39
-0.009976 -0.006829 0.165176 3.587324068672e-43
-0.011572 -0.007752 0.165199 9.809089250274e-45
-0.011638 -0.008392 0.165215 2.204053309090e-39
-0.011766 -0.009672 0.165247 3.581585751460e-39
-0.011894 -0.010952 0.165278 4.040763232250e-39
-0.012022 -0.012233 0.165310 4.040763232250e-39
-0.012149 -0.013513 0.165342 4.040763232250e-39
-0.012277 -0.014793 0.165373 4.408106618181e-39
-0.012405 -0.016073 0.165405 4.224432823268e-39
-0.012533 -0.017354 0.165437 2.204051907792e-39
-0.012661 -0.018634 0.165469 8.477732394900e-39
-0.012727 -0.019273 0.165484 1.014120679541e-38
-0.012855 -0.020553 0.165516 7.198496835907e-39
-0.012983 -0.021833 0.165548 8.024307244306e-39
-0.013110 -0.023113 0.165580 8.390575834315e-39
-0.014604 -0.024024 0.165602 8.207971230130e-39
-0.014732 -0.025302 0.165634 8.116502874170e-39
-0.014859 -0.026579 0.165666 9.223918221959e-39
-0.014987 -0.027856 0.165697 3.687965324379e-40
-0.015053 -0.028494 0.165713 9.183549615799e-41
0.000293 0.067887 0.162677 4.499947719532e-39
0.000165 0.066597 0.162709 2.571393892424e-39
0.000036 0.065308 0.162741 8.014205283677e-39
-0.000031 0.064664 0.162757 1.050673830242e-38
-0.000160 0.063374 0.162788 7.660189647441e-39
-0.000289 0.062085 0.162820 7.933906677776e-39
-0.000417 0.060795 0.162852 7.749515418049e-39
-0.000546 0.059506 0.162884 7.933906677776e-39
-0.000675 0.058216 0.162916 7.933906677776e-39
-0.000803 0.056927 0.162948 8.118297937503e-39
-0.000932 0.055638 0.162980 9.129212866546e-39
-0.001061 0.054348 0.163012 8.114690995255e-39
-0.001128 0.053704 0.163028 6.453004651588e-39
-0.001256 0.052415 0.163060 4.883893689668e-39
-0.001385 0.051126 0.163092 7.005814093167e-39
-0.002895 0.050055 0.163120 1.050925923836e-38
-0.003023 0.048768 0.163152 8.296550108657e-39
-0.003152 0.047482 0.163184 3.673419846320e-40
-0.003280 0.046195 0.163216 9.774565460008e-39
-0.003409 0.044909 0.163247 8.025746377829e-39
-0.003476 0.044266 0.163263 8.117218937685e-39
-0.003604 0.042979 0.163295 8.483491731589e-39
-0.003732 0.041693 0.163327 8.023231047086e-39
-0.003861 0.040406 0.163359 7.748084692317e-39
-0.003989 0.039120 0.163391 9.592337805110e-39
-0.015197 -0.029786 0.165103 3.657388991888e-43
-0.015325 -0.031063 0.165134 2.388443167518e-39
-0.015452 -0.032341 0.165166 4.040763232250e-39
-0.015580 -0.033618 0.165197 4.224432823268e-39
-0.015707 -0.034896 0.165229 4.408103815584e-39
-0.015835 -0.036173 0.165261 3.948926334794e-39
-0.015962 -0.037450 0.165292 3.857449571042e-39
-0.016090 -0.038727 0.165324 4.224791555674e-39
-0.016217 -0.040005 0.165356 4.591776209198e-39
-0.016284 -0.040642 0.165371 4.409180012804e-39
-0.016411 -0.041920 0.165403 4.040764633549e-39
-0.016539 -0.043197 0.165435 3.765614074885e-39
-0.016666 -0.044474 0.165466 2.112949290731e-39
-0.016794 -0.045751 0.165498 9.770993550223e-39
-0.016921 -0.047028 0.165530 7.658031647806e-39
-0.017048 -0.048305 0.165561 8.483843457503e-39
-0.017176 -0.049582 0.165593 8.299812331482e-39
-0.018603 -0.049798 0.165600 8.299815134079e-39
-0.018730 -0.051072 0.165631 8.117216135088e-39
-0.018858 -0.052347 0.165663 9.407593418171e-39
-0.018985 -0.053621 0.165695 1.836906104945e-40
-0.019112 -0.054896 0.165726 3.587324068672e-43
-0.019239 -0.056170 0.165758 2.664308388399e-39
-0.019366 -0.057444 0.165789 4.132597327110e-39
-0.019494 -0.058719 0.165821 3.857449571042e-39
-0.019621 -0.059993 0.165852 4.224445434954e-39
-0.019687 -0.060629 0.165868 3.398273491551e-39
-0.019814 -0.061904 0.165900 5.990925081679e-39
-0.019941 -0.063178 0.165931 8.854065110479e-39
-0.020069 -0.064452 0.165963 8.485637119538e-39
-0.020196 -0.065726 0.165994 7.564416502598e-39
-0.020323 -0.067001 0.166026 8.025375033736e-39
-0.020450 -0.068275 0.166057 8.115072148438e-39
-0.020577 -0.069549 0.166089 9.588749079743e-39
-0.022061 -0.070358 0.166111 1.012383489835e-39
-0.022127 -0.070993 0.166126 7.006492321624e-45
-0.022254 -0.072265 0.166158 9.190724263936e-40
-0.023737 -0.073065 0.166179 3.765616877481e-39
-0.023864 -0.074334 0.166211 4.132597327110e-39
-0.023990 -0.075603 0.166242 4.132958862113e-39
-0.024117 -0.076872 0.166274 4.132597327110e-39
-0.024243 -0.078141 0.166305 4.040764633549e-39
-0.024370 -0.079410 0.166336 4.132597327110e-39
-0.024436 -0.080043 0.166352 4.224446836252e-39
-0.004134 0.037819 0.162776 3.643376007245e-43
-0.004263 0.036532 0.162808 2.755064884740e-40
-0.004391 0.035246 0.162840 3.397913357846e-39
-0.004519 0.033960 0.162872 3.214603900533e-39
-0.004586 0.033317 0.162888 1.653038930844e-39
-0.004715 0.032030 0.162920 9.684527829780e-39
-0.004843 0.030744 0.162952 7.106301206044e-39
-0.004971 0.029458 0.162983 8.027167294472e-39
-0.005100 0.028171 0.163015 8.209769096060e-39
-0.005228 0.026885 0.163047 7.657315584290e-39
-0.005357 0.025599 0.163079 8.393803024678e-39
-0.005485 0.024313 0.163111 6.638826637047e-39
-0.006928 0.023942 0.163123 5.605193857299e-45
-0.007056 0.022658 0.163155 3.587324068672e-43
-0.007184 0.021375 0.163187 9.590556754762e-39
-0.007312 0.020091 0.163218 7.932474550745e-39
-0.007440 0.018807 0.163250 8.299812331482e-39
-0.007568 0.017524 0.163282 7.933906677776e-39
-0.007696 0.016240 0.163314 7.565121355726e-39
-0.007824 0.014957 0.163346 8.483840654906e-39
-0.007953 0.013673 0.163377 5.807635242545e-39
-0.008019 0.013032 0.163393 1.541428310757e-44
-0.008147 0.011749 0.163425 3.587324068672e-43
-0.009747 0.010785 0.163452 2.663230789880e-39
-0.009875 0.009505 0.163484 3.397913357846e-39
-0.010002 0.008224 0.163515 3.397914759144e-39
-0.008660 0.006615 0.163552 3.397913357846e-39
-0.008788 0.005332 0.163584 3.489748854004e-39
-0.008916 0.004048 0.163616 2.571393892424e-39
-0.009044 0.002765 0.163648 1.930738451414e-39
-0.009111 0.002124 0.163663 9.582635214543e-39
-0.009239 0.000841 0.163695 7.565836017942e-39
-0.009367 -0.000442 0.163727 7.657315584290e-39
-0.009495 -0.001726 0.163759 7.748436418232e-39
-0.009623 -0.003009 0.163791 7.656963858376e-39
-0.009751 -0.004292 0.163822 7.747720354716e-39
-0.011347 -0.005221 0.163848 9.405795552241e-39
-0.011475 -0.006501 0.163880 0.000000000000e+00
-0.011603 -0.007781 0.163912 0.000000000000e+00
-0.011669 -0.008421 0.163928 1.745233159409e-39
-0.011797 -0.009701 0.163960 3.214601097937e-39
-0.011925 -0.010982 0.163991 3.489748854004e-39
-0.012053 -0.012262 0.164023 3.581584350162e-39
-0.012180 -0.013542 0.164055 3.765255342478e-39
-0.012308 -0.014822 0.164086 3.673419846320e-39
-0.012436 -0.016103 0.164118 3.673419846320e-39
-0.012564 -0.017383 0.164150 1.285696946212e-39
-0.012691 -0.018663 0.164182 9.402562756684e-39
-0.012758 -0.019302 0.164197 9.405080890024e-39
-0.012886 -0.020583 0.164229 7.564399687017e-39
-0.013014 -0.021863 0.164261 7.839560054770e-39
-0.013141 -0.023143 0.164293 7.931755684633e-39
-0.014635 -0.024053 0.164318 8.023579970403e-39
-0.014763 -0.025331 0.164350 8.023955518392e-39
-0.014890 -0.026608 0.164381 9.221038553615e-39
-0.015018 -0.027886 0.164413 9.183549615799e-41
-0.015084 -0.028524 0.164429 9.183549615799e-41
-0.013847 -0.030182 0.164467 3.587324068672e-43
-0.015339 -0.031078 0.164492 2.113651341261e-39
-0.015467 -0.032356 0.164524 3.581943082569e-39
-0.015594 -0.033633 0.164555 3.581943082569e-39
-0.015722 -0.034911 0.164587 3.857449571042e-39
-0.015849 -0.036188 0.164619 3.949287869797e-39
-0.015977 -0.037465 0.164650 3.765615476183e-39
0.000134 0.066568 0.161413 3.949643799607e-39
0.000005 0.065279 0.161445 1.928545419318e-39
-0.000062 0.064634 0.161461 8.109262365005e-39
-0.000191 0.063345 0.161493 9.036678122455e-39
-0.000320 0.062055 0.161525 8.026462441345e-39
-0.000448 0.060766 0.161557 8.209411764951e-39
-0.000577 0.059477 0.161589 8.117944810289e-39
-0.000706 0.058187 0.161621 7.933201824648e-39
-0.000834 0.056898 0.161652 8.026102307639e-39
-0.000963 0.055608 0.161684 7.750597220464e-39
-0.001092 0.054319 0.161716 8.302333267419e-39
-0.002541 0.053886 0.161731 8.671118589469e-39
-0.001288 0.052386 0.161764 9.221771432712e-39
-0.002798 0.051313 0.161795 9.037014434086e-39
-0.002926 0.050026 0.161827 8.579271882924e-39
-0.003054 0.048739 0.161859 7.928483652719e-39
-0.003183 0.047453 0.161891 3.673419846320e-40
-0.003311 0.046166 0.161923 1.032594417586e-38
-0.004758 0.045751 0.161937 8.575317418657e-39
-0.003507 0.044237 0.161970 8.300168261292e-39
-0.005015 0.043183 0.162001 7.838122322545e-39
-0.005143 0.041899 0.162032 8.025023307822e-39
-0.005271 0.040615 0.162064 7.657679921891e-39
-0.004020 0.039090 0.162098 9.408659806302e-39
-0.004149 0.037804 0.162130 7.202674106630e-43
-0.004277 0.036518 0.162162 3.673419846320e-40
-0.004405 0.035231 0.162194 3.214243766828e-39
-0.004534 0.033945 0.162225 2.938737278354e-39
-0.004601 0.033302 0.162241 1.836709923160e-39
-0.004729 0.032016 0.162273 9.867842892286e-39
-0.004857 0.030729 0.162305 7.289965191868e-39
-0.016121 -0.038757 0.164040 3.857092239934e-39
-0.016187 -0.039395 0.164056 3.948926334794e-39
-0.017677 -0.040269 0.164081 4.132956059516e-39
-0.016442 -0.041949 0.164119 4.316269720724e-39
-0.016569 -0.043226 0.164150 3.214601097937e-39
-0.016697 -0.044503 0.164182 1.102397297989e-39
-0.016824 -0.045781 0.164214 1.013905720356e-38
-0.018313 -0.046642 0.164239 7.657679921891e-39
-0.017079 -0.048335 0.164277 8.022160455059e-39
-0.018568 -0.049191 0.164302 8.209062841634e-39
-0.018634 -0.049827 0.164318 7.932474550745e-39
-0.018761 -0.051102 0.164350 7.472925725862e-39
-0.018888 -0.052376 0.164381 9.866777905453e-39
-0.019016 -0.053651 0.164413 9.184390394878e-41
-0.019143 -0.054925 0.164445 7.174648137343e-43
-0.019270 -0.056199 0.164476 2.664311190996e-39
-0.019397 -0.057474 0.164508 4.316628453131e-39
-0.019524 -0.058748 0.164539 4.040761830952e-39
-0.019652 -0.060022 0.164571 3.948936143883e-39
-0.019718 -0.060659 0.164587 3.306077861688e-39
-0.019845 -0.061933 0.164618 7.648287018285e-39
-0.019972 -0.063207 0.164650 8.761869480616e-39
-0.020099 -0.064482 0.164681 7.750591615270e-39
-0.020227 -0.065756 0.164713 8.025026110419e-39
-0.020354 -0.067030 0.164744 7.748790946743e-39
-0.020481 -0.068304 0.164776 8.298028478537e-39
-0.020608 -0.069578 0.164808 9.405795552241e-39
-0.022092 -0.070388 0.164832 1.105293781915e-39
-0.022158 -0.071023 0.164848 9.184110135185e-41
-0.022285 -0.072294 0.164879 0.000000000000e+00
-0.023768 -0.073094 0.164903 3.030932908218e-39
-0.023894 -0.074363 0.164935 4.132597327110e-39
-0.024021 -0.075632 0.164966 3.857092239934e-39
-0.024147 -0.076901 0.164997 4.040761830952e-39
-0.022919 -0.078652 0.165037 3.857099246426e-39
-0.024401 -0.079439 0.165060 4.316268319426e-39
-0.024467 -0.080072 0.165076 4.132609938796e-39
-0.024593 -0.081341 0.165107 4.316631255728e-39
-0.005003 0.029429 0.161691 7.842059971230e-39
-0.005131 0.028142 0.161722 8.024301639113e-39
-0.006636 0.027121 0.161753 8.024658970221e-39
-0.006764 0.025837 0.161785 8.945181740525e-39
-0.006892 0.024554 0.161817 6.455503166750e-39
-0.006959 0.023913 0.161833 3.587324068672e-43
-0.007087 0.022629 0.161865 5.605193857299e-45
-0.007215 0.021345 0.161896 9.130654802666e-39
-0.007343 0.020062 0.161928 8.024304441709e-39
-0.007471 0.018778 0.161960 7.655519119659e-39
-0.007599 0.017495 0.161992 7.565840221838e-39
-0.007727 0.016211 0.162024 7.748433615635e-39
-0.007855 0.014928 0.162055 8.208692898839e-39
-0.007984 0.013644 0.162087 5.719410892529e-39
-0.008050 0.013003 0.162103 1.475567282934e-42
-0.008178 0.011719 0.162135 2.030481474807e-39
-0.008307 0.010436 0.162167 3.775716035514e-39
-0.009906 0.009475 0.162196 3.776070564025e-39
-0.010033 0.008195 0.162228 3.679920469896e-39
-0.008691 0.006586 0.162262 3.497685808506e-39
-0.008819 0.005302 0.162294 3.219659785393e-39
-0.008947 0.004019 0.162326 1.837449808749e-39
-0.009075 0.002736 0.162358 5.510438055142e-40
-0.009142 0.002095 0.162373 8.662472577945e-39
-0.009270 0.000811 0.162405 7.933182206470e-39
-0.009398 -0.000472 0.162437 7.565124158323e-39
-0.010995 -0.001409 0.162466 7.564771031110e-39
-0.009654 -0.003038 0.162501 7.380741306387e-39
-0.009782 -0.004321 0.162532 7.656592514283e-39
-0.011378 -0.005250 0.162561 7.933182206470e-39
-0.011506 -0.006530 0.162593 7.356816937705e-43
-0.011634 -0.007811 0.162625 5.605193857299e-45
-0.011700 -0.008450 0.162641 7.350539120585e-40
-0.011828 -0.009731 0.162672 1.746321968315e-39
-0.011956 -0.011011 0.162704 2.021102584185e-39
-0.012083 -0.012291 0.162736 2.113298214048e-39
-0.012211 -0.013571 0.162768 2.021102584185e-39
-0.012339 -0.014852 0.162799 2.204776379098e-39
-0.011001 -0.016510 0.162835 2.571393892424e-39
-0.012595 -0.017412 0.162863 1.377532442370e-39
-0.012722 -0.018692 0.162894 9.590186811968e-39
-0.012789 -0.019332 0.162910 8.576034883471e-39
-0.012917 -0.020612 0.162942 8.207616701619e-39
-0.013045 -0.021892 0.162974 8.023952715795e-39
-0.013172 -0.023172 0.163005 8.207972631429e-39
-0.013300 -0.024452 0.163037 7.931029812029e-39
-0.014794 -0.025360 0.163065 7.655172998939e-39
-0.014921 -0.026638 0.163097 7.378563688573e-39
-0.015049 -0.027915 0.163129 7.174648137343e-43
-0.015115 -0.028553 0.163144 5.605193857299e-45
-0.015242 -0.029830 0.163176 9.809089250274e-45
-0.015370 -0.031108 0.163208 8.276026691348e-40
-0.015497 -0.032385 0.163239 1.928553827109e-39
-0.015625 -0.033663 0.163271 1.653043134739e-39
-0.015752 -0.034940 0.163303 1.469374945020e-39
-0.015880 -0.036217 0.163334 3.398276294148e-39
-0.016007 -0.037494 0.163366 3.948926334794e-39
-0.016135 -0.038772 0.163398 4.040761830952e-39
-0.016201 -0.039410 0.163413 4.132601531005e-39
-0.017691 -0.040284 0.163441 3.857449571042e-39
-0.016456 -0.041964 0.163477 4.316631255728e-39
-0.016584 -0.043241 0.163508 3.215677295157e-39
-0.016711 -0.044518 0.163540 1.193874061740e-39
-0.016839 -0.045796 0.163572 9.678079054247e-39
-0.018327 -0.046657 0.163598 8.487080456956e-39
0.000102 0.066539 0.160117 4.316268319426e-39
-0.000026 0.065249 0.160149 2.571393892424e-39
-0.000093 0.064605 0.160165 2.389530575127e-39
-0.000222 0.063316 0.160197 1.004790694235e-38
-0.000351 0.062026 0.160229 8.119731465832e-39
-0.000479 0.060737 0.160261 8.119009797122e-39
-0.000608 0.059447 0.160293 8.854781173995e-39
-0.000737 0.058158 0.160325 7.841719455703e-39
-0.000866 0.056869 0.160357 7.659477787821e-39
-0.000994 0.055579 0.160389 7.842792850327e-39
-0.001123 0.054290 0.160421 7.658398788003e-39
-0.001190 0.053646 0.160437 8.026102307639e-39
-0.001319 0.052356 0.160469 8.301245859811e-39
-0.001447 0.051067 0.160501 7.932827677958e-39
-0.002957 0.049997 0.160534 8.670039589652e-39
-0.003085 0.048710 0.160566 7.559352209948e-39
-0.003214 0.047423 0.160598 5.510129769479e-40
-0.003342 0.046137 0.160630 1.005007334978e-38
-0.004789 0.045722 0.160647 8.300888528702e-39
-0.004918 0.044438 0.160678 8.117573466196e-39
-0.005046 0.043154 0.160710 8.208698504033e-39
-0.005174 0.041870 0.160742 7.934258403690e-39
-0.005302 0.040586 0.160774 7.842790047730e-39
-0.004051 0.039061 0.160805 9.407593418171e-39
-0.004180 0.037775 0.160837 3.643376007245e-43
-0.004308 0.036488 0.160869 2.755092910709e-40
-0.004436 0.035202 0.160901 3.398642033047e-39
-0.004565 0.033915 0.160933 3.122411073267e-39
-0.004632 0.033273 0.160948 1.469367938528e-39
-0.004760 0.031986 0.160980 1.005151528590e-38
-0.004888 0.030700 0.161012 7.566203158140e-39
-0.005017 0.029414 0.161044 7.842425710129e-39
-0.006522 0.028390 0.161076 8.025023307822e-39
-0.006650 0.027106 0.161108 8.117573466196e-39
-0.006778 0.025823 0.161140 8.485648329925e-39
-0.006906 0.024539 0.161172 6.547345669400e-39
-0.006973 0.023898 0.161188 3.587324068672e-43
-0.007101 0.022614 0.161219 5.605193857299e-45
-0.017110 -0.048364 0.162993 8.298380204451e-39
-0.018598 -0.049220 0.163021 7.841722258300e-39
-0.018665 -0.049856 0.163037 7.842076786812e-39
-0.018792 -0.051131 0.163068 8.208692898839e-39
-0.018919 -0.052405 0.163100 1.069509523680e-38
-0.019046 -0.053680 0.163131 5.524577156647e-40
-0.019174 -0.054954 0.163163 3.587324068672e-43
-0.019301 -0.056229 0.163195 1.928545419318e-39
-0.019428 -0.057503 0.163226 3.948926334794e-39
-0.019555 -0.058777 0.163258 4.040761830952e-39
-0.019682 -0.060052 0.163289 3.673426852812e-39
-0.019749 -0.060688 0.163305 2.939812074276e-39
-0.019876 -0.061962 0.163337 7.740844183152e-39
-0.020003 -0.063237 0.163368 8.761517754701e-39
-0.020130 -0.064511 0.163400 8.395599489309e-39
-0.020257 -0.065785 0.163431 8.483135801779e-39
-0.020385 -0.067059 0.163463 8.208692898839e-39
-0.020512 -0.068334 0.163495 8.300539605385e-39
-0.020639 -0.069608 0.163526 9.313599922378e-39
-0.020766 -0.070882 0.163558 9.221244544489e-41
-0.022189 -0.071052 0.163569 2.802596928650e-45
-0.022316 -0.072323 0.163600 1.286417213623e-39
-0.022442 -0.073595 0.163632 3.581585751460e-39
-0.022569 -0.074866 0.163663 4.040763232250e-39
-0.022696 -0.076138 0.163695 4.132958862113e-39
-0.022823 -0.077409 0.163726 4.132597327110e-39
-0.022950 -0.078681 0.163758 3.857093641233e-39
-0.023077 -0.079952 0.163789 4.316268319426e-39
-0.024497 -0.080102 0.163800 4.224797160868e-39
-0.024624 -0.081370 0.163831 4.591774807900e-39
-0.007246 0.021316 0.160606 9.406885762446e-39
-0.007374 0.020032 0.160638 7.473643190676e-39
-0.007502 0.018749 0.160670 7.566205960737e-39
-0.007630 0.017465 0.160702 7.657679921891e-39
-0.007758 0.016182 0.160733 8.026102307639e-39
-0.007886 0.014898 0.160765 8.024658970221e-39
-0.008015 0.013615 0.160797 8.579273284222e-39
-0.008081 0.012974 0.160813 9.132445662104e-39
-0.008209 0.011690 0.160845 8.671480124473e-39
-0.008338 0.010407 0.160877 9.223563693448e-39
-0.008466 0.009123 0.160908 9.315762125908e-39
-0.008594 0.007840 0.160940 9.407960558368e-39
-0.008722 0.006556 0.160972 9.223915419362e-39
-0.008850 0.005273 0.161004 1.051250744820e-38
-0.008978 0.003990 0.161036 1.013086941664e-39
-0.010514 0.003684 0.161052 2.755162975632e-40
-0.010642 0.002404 0.161084 8.479174331020e-39
-0.009301 0.000782 0.161115 7.840267710494e-39
-0.010898 -0.000157 0.161147 7.839915984580e-39
-0.011025 -0.001438 0.161179 7.473288662165e-39
-0.011153 -0.002718 0.161211 7.106304008641e-39
-0.011281 -0.003999 0.161242 8.025026110419e-39
-0.011409 -0.005279 0.161274 7.841708245316e-39
-0.011537 -0.006560 0.161306 9.682732766447e-39
-0.011603 -0.007199 0.161322 9.774212332795e-39
-0.011731 -0.008479 0.161353 1.014300045744e-38
-0.011859 -0.009760 0.161385 9.866056236744e-39
-0.011987 -0.011040 0.161417 1.014226897964e-38
-0.012114 -0.012320 0.161449 1.023374854599e-38
-0.012242 -0.013601 0.161480 9.591607728611e-39
-0.012370 -0.014881 0.161512 1.032379738661e-38
-0.011032 -0.016539 0.161545 9.183619680722e-40
-0.012626 -0.017441 0.161576 2.849454947998e-39
-0.012753 -0.018722 0.161607 9.039898306326e-39
-0.012820 -0.019361 0.161623 7.565124158323e-39
-0.012948 -0.020641 0.161655 7.841359321998e-39
-0.013075 -0.021921 0.161687 8.116151148255e-39
-0.013203 -0.023201 0.161718 8.208695701436e-39
-0.014697 -0.024112 0.161749 7.931035417222e-39
-0.014824 -0.025389 0.161781 8.207256567913e-39
-0.014952 -0.026667 0.161812 8.485279788429e-39
-0.015079 -0.027944 0.161844 8.580704009954e-39
-0.015146 -0.028582 0.161860 9.315759323311e-39
-0.015273 -0.029860 0.161892 9.774579472993e-39
-0.015401 -0.031137 0.161923 1.050925923836e-38
-0.015528 -0.032414 0.161955 1.041599301647e-38
-0.015656 -0.033692 0.161987 1.060073880471e-38
-0.015783 -0.034969 0.162018 1.170745070067e-38
-0.015911 -0.036246 0.162050 2.389536180321e-39
-0.016038 -0.037524 0.162082 3.765614074885e-39
-0.016166 -0.038801 0.162113 4.225150288081e-39
-0.016232 -0.039439 0.162129 4.316628453131e-39
-0.017722 -0.040313 0.162159 4.132597327110e-39
-0.016487 -0.041993 0.162192 4.500299445447e-39
-0.016615 -0.043271 0.162224 3.949643799607e-39
-0.016742 -0.044548 0.162256 1.654129141049e-39
-0.016870 -0.045825 0.162287 1.004614270759e-38
-0.018358 -0.046686 0.162317 8.116148345658e-39
-0.018485 -0.047961 0.162348 8.298380204451e-39
-0.018613 -0.049235 0.162380 7.842076786812e-39
-0.018679 -0.049871 0.162396 7.842073984215e-39
-0.018806 -0.051146 0.162427 8.208695701436e-39
-0.018933 -0.052420 0.162459 1.023519608731e-38
-0.019061 -0.053695 0.162491 4.602648883983e-40
-0.019188 -0.054969 0.162522 0.000000000000e+00
0.000071 0.066510 0.158821 4.500298044148e-39
0.000004 0.065865 0.158837 4.591779011795e-39
-0.000125 0.064576 0.158869 4.132958862113e-39
-0.000253 0.063286 0.158901 7.187294855984e-39
-0.000382 0.061997 0.158933 9.406151482051e-39
-0.000511 0.060707 0.158965 8.026828180244e-39
-0.000639 0.059418 0.158997 7.933902473880e-39
-0.000768 0.058129 0.159029 7.933550747966e-39
-0.000897 0.056839 0.159061 7.842787245133e-39
-0.001025 0.055550 0.159093 7.750241290654e-39
-0.001092 0.054906 0.159109 8.027908581360e-39
-0.001221 0.053616 0.159141 8.119023810107e-39
-0.001350 0.052327 0.159173 7.196715785559e-39
-0.001478 0.051038 0.159205 8.301257070199e-39
-0.002988 0.049967 0.159241 8.947705479059e-39
-0.003116 0.048681 0.159273 5.625411791543e-39
-0.003245 0.047394 0.159305 9.809089250274e-45
-0.003373 0.046108 0.159337 9.868921892103e-39
-0.003502 0.044821 0.159368 7.749875551755e-39
-0.004948 0.044409 0.159388 8.117216135088e-39
-0.005077 0.043125 0.159420 8.484209196402e-39
-0.005205 0.041841 0.159452 8.025026110419e-39
-0.005333 0.040557 0.159484 7.750594417867e-39
-0.004082 0.039032 0.159512 9.040251433539e-39
-0.005589 0.037989 0.159547 7.006492321624e-45
-0.004339 0.036459 0.159576 3.673419846320e-40
-0.004467 0.035173 0.159608 3.214603900533e-39
-0.004596 0.033886 0.159640 3.030932908218e-39
-0.004663 0.033243 0.159656 2.020380915476e-39
-0.004791 0.031957 0.159687 9.774928396310e-39
-0.004920 0.030671 0.159719 7.474730598284e-39
-0.005048 0.029384 0.159751 7.750231481564e-39
-0.006553 0.028361 0.159786 7.934266811481e-39
-0.006681 0.027077 0.159818 7.659829513735e-39
-0.006809 0.025793 0.159850 8.119379739917e-39
-0.006937 0.024510 0.159881 6.363676078383e-39
-0.007004 0.023868 0.159897 3.587324068672e-43
-0.007132 0.022585 0.159929 2.802596928650e-45
-0.008734 0.021598 0.159964 9.498003793791e-39
-0.007388 0.020018 0.159993 7.197056301086e-39
-0.007516 0.018734 0.160025 7.289263141337e-39
-0.007645 0.017450 0.160057 7.565487094625e-39
-0.007773 0.016167 0.160088 8.209061440335e-39
-0.007901 0.014883 0.160120 8.115777001565e-39
-0.008029 0.013600 0.160152 8.300891331299e-39
-0.019332 -0.056258 0.161913 1.928908355620e-39
-0.019459 -0.057532 0.161945 3.765255342478e-39
-0.019586 -0.058807 0.161976 3.857449571042e-39
-0.019713 -0.060081 0.162008 3.857096443829e-39
-0.019779 -0.060717 0.162024 3.031288838027e-39
-0.019907 -0.061992 0.162055 7.925958512886e-39
-0.020034 -0.063266 0.162087 8.667892800405e-39
-0.020161 -0.064540 0.162118 7.841719455703e-39
-0.020288 -0.065814 0.162150 8.667529864102e-39
-0.020415 -0.067089 0.162182 8.116854600084e-39
-0.020543 -0.068363 0.162213 7.842073984215e-39
-0.022026 -0.069175 0.162243 9.866413567852e-39
-0.022092 -0.069810 0.162258 8.851168626554e-39
-0.022219 -0.071081 0.162290 5.605193857299e-45
-0.022346 -0.072353 0.162321 1.377892576075e-39
-0.022473 -0.073624 0.162353 3.398630822659e-39
-0.022600 -0.074896 0.162385 4.040761830952e-39
-0.022727 -0.076167 0.162416 4.040763232250e-39
-0.022854 -0.077439 0.162448 4.040761830952e-39
-0.022981 -0.078710 0.162479 3.949287869797e-39
-0.023108 -0.079982 0.162511 4.959475524938e-39
-0.024528 -0.080131 0.162524 4.683617310550e-39
-0.023301 -0.081888 0.162558 4.592851005120e-39
-0.008112 0.012944 0.159523 7.655533132644e-39
-0.008240 0.011661 0.159555 7.288195351907e-39
-0.008369 0.010377 0.159587 7.564045158505e-39
-0.008497 0.009094 0.159618 7.656968062271e-39
-0.008625 0.007811 0.159650 7.748083291019e-39
-0.008753 0.006527 0.159682 7.381814701010e-39
-0.008881 0.005244 0.159714 8.762236620814e-39
-0.009009 0.003960 0.159746 1.261168617892e-44
-0.010545 0.003655 0.159765 1.541428310757e-44
-0.010673 0.002374 0.159796 8.574269247406e-39
-0.010801 0.001094 0.159828 7.382166426925e-39
-0.010929 -0.000187 0.159860 7.014474117677e-39
-0.011056 -0.001467 0.159892 7.381814701010e-39
-0.011184 -0.002748 0.159923 7.749515418049e-39
-0.011312 -0.004028 0.159955 7.656966660973e-39
-0.011440 -0.005308 0.159987 7.103790079196e-39
-0.011568 -0.006589 0.160019 8.023228244489e-39
-0.011634 -0.007228 0.160035 7.747717552119e-39
-0.011762 -0.008509 0.160066 7.198495434609e-39
-0.011890 -0.009789 0.160098 7.288900205035e-39
-0.012018 -0.011069 0.160130 7.473643190676e-39
-0.012145 -0.012350 0.160162 7.749162290836e-39
-0.012273 -0.013630 0.160193 7.473640388079e-39
-0.012401 -0.014910 0.160225 8.850467977321e-39
-0.012529 -0.016191 0.160257 2.755120936678e-40
-0.012656 -0.017471 0.160289 7.743379132074e-39
-0.012723 -0.018110 0.160304 1.087626911526e-38
-0.012851 -0.019390 0.160336 7.656968062271e-39
-0.012979 -0.020670 0.160368 7.839560054770e-39
-0.013106 -0.021951 0.160400 8.392733833950e-39
-0.013234 -0.023231 0.160431 7.380746911581e-39
-0.014728 -0.024141 0.160465 7.472220872735e-39
-0.014855 -0.025419 0.160496 8.299812331482e-39
-0.014983 -0.026696 0.160528 7.839560054770e-39
-0.015110 -0.027974 0.160560 7.749512615452e-39
-0.015177 -0.028612 0.160576 8.208343975522e-39
-0.015304 -0.029889 0.160607 8.300888528702e-39
-0.015432 -0.031166 0.160639 8.209050229948e-39
-0.015559 -0.032444 0.160671 7.747720354716e-39
-0.015687 -0.033721 0.160702 7.656240788368e-39
-0.015814 -0.034998 0.160734 9.958969331421e-39
-0.015942 -0.036276 0.160766 1.471895880958e-39
-0.016069 -0.037553 0.160797 2.755423617147e-39
-0.016197 -0.038830 0.160829 3.857449571042e-39
-0.016263 -0.039468 0.160845 4.132598728408e-39
-0.017753 -0.040342 0.160877 4.500299445447e-39
-0.016518 -0.042023 0.160908 4.683610304058e-39
-0.016645 -0.043300 0.160940 4.316985784239e-39
-0.016773 -0.044577 0.160971 1.287138882332e-39
-0.016900 -0.045854 0.161003 9.862822039888e-39
-0.018389 -0.046715 0.161035 7.930327761498e-39
-0.018516 -0.047990 0.161067 7.562974566478e-39
-0.018583 -0.048626 0.161083 7.196338836272e-39
-0.018710 -0.049901 0.161114 7.749515418049e-39
-0.018837 -0.051175 0.161146 7.750241290654e-39
-0.018964 -0.052450 0.161177 9.682746779432e-39
-0.019091 -0.053724 0.161209 7.006492321624e-45
-0.019219 -0.054999 0.161241 3.587324068672e-43
-0.019346 -0.056273 0.161272 2.388087237708e-39
-0.019473 -0.057547 0.161304 4.316628453131e-39
-0.019600 -0.058822 0.161335 4.040761830952e-39
-0.019727 -0.060096 0.161367 4.040764633549e-39
-0.019794 -0.060732 0.161383 2.939094609463e-39
-0.019921 -0.062007 0.161414 7.372784733706e-39
-0.020048 -0.063281 0.161446 8.390940171915e-39
0.000040 0.066481 0.157526 4.775804532622e-39
-0.000027 0.065836 0.157542 4.867644232676e-39
-0.000156 0.064547 0.157574 4.775804532622e-39
-0.000284 0.063257 0.157605 3.949292073693e-39
-0.000413 0.061968 0.157637 3.965505096925e-39
-0.000542 0.060678 0.157669 9.683828581846e-39
-0.000670 0.059389 0.157701 8.118293733607e-39
-0.000799 0.058099 0.157733 8.210493567366e-39
-0.000928 0.056810 0.157765 8.578922959606e-39
-0.001056 0.055521 0.157797 7.566203158140e-39
-0.002505 0.055085 0.157820 7.934988480190e-39
-0.002634 0.053798 0.157852 7.842436920517e-39
-0.001381 0.052298 0.157877 7.840634850692e-39
-0.002891 0.051225 0.157916 8.575334234239e-39
-0.001638 0.049719 0.157941 8.394528897283e-39
-0.003148 0.048652 0.157980 6.548084153691e-39
-0.003276 0.047365 0.158012 9.809089250274e-45
-0.003404 0.046078 0.158044 9.868921892103e-39
-0.003471 0.045435 0.158060 8.119376937320e-39
-0.004979 0.044380 0.158098 7.567277954062e-39
-0.005108 0.043096 0.158130 8.025026110419e-39
-0.003857 0.041576 0.158155 7.841355118103e-39
-0.005364 0.040528 0.158193 8.301607394815e-39
-0.004113 0.039003 0.158219 9.406148679454e-39
-0.005620 0.037960 0.158257 7.006492321624e-45
-0.004370 0.036430 0.158283 9.183549615799e-41
-0.004498 0.035143 0.158315 2.479558396266e-39
-0.004565 0.034501 0.158331 3.398273491551e-39
-0.004694 0.033214 0.158363 2.387722900108e-39
-0.004822 0.031928 0.158395 9.958606395119e-39
-0.004951 0.030641 0.158426 7.474007528277e-39
-0.006456 0.029615 0.158464 7.658035851701e-39
-0.006584 0.028332 0.158496 7.564771031110e-39
-0.006712 0.027048 0.158528 7.749512615452e-39
-0.006840 0.025764 0.158559 8.211223643866e-39
-0.006968 0.024480 0.158591 6.271837779628e-39
-0.007035 0.023839 0.158607 3.587324068672e-43
-0.008637 0.022850 0.158645 5.605193857299e-45
